# .PCD v0.7 - Point Cloud Data file format
VERSION 0.7
FIELDS x y z
SIZE 4 4 4
TYPE F F F
COUNT 1 1 1
WIDTH 1704
HEIGHT 1
VIEWPOINT 0 0 0 1 0 0 0
POINTS 1704
DATA ascii
9.4099998 -0.58999997 1.0599999
9.4099998 -0.58999997 1.16
9.4099998 -0.58999997 1.26
9.4099998 -0.58999997 1.36
9.4099998 -0.58999997 1.46
9.4099998 -0.58999997 1.5599999
9.4099998 -0.58999997 1.66
9.4099998 -0.58999997 1.76
9.4099998 -0.58999997 1.86
9.4099998 -0.58999997 1.96
9.4099998 -0.58999997 2.0599999
9.4099998 -0.58999997 2.1600001
9.5100002 -1.1900001 -0.94
9.5100002 -1.1900001 -0.83999997
9.5100002 -1.1900001 -0.74000001
9.5100002 -1.1900001 -0.63999999
9.5100002 -1.1900001 -0.54000002
9.5100002 -1.1900001 -0.44
9.5100002 -1.1900001 -0.34
9.5100002 -1.1900001 -0.23999999
9.5100002 -1.1900001 -0.14
9.5100002 -1.1900001 -0.039999999
9.5100002 -1.1900001 0.059999999
9.5100002 -1.1900001 0.16
9.5100002 -1.1900001 0.25999999
9.5100002 -1.1900001 0.36000001
9.5100002 -1.1900001 0.46000001
9.5100002 -1.1900001 0.56
9.5100002 -1.1900001 0.66000003
9.5100002 -1.1900001 0.75999999
9.5100002 -1.1900001 0.86000001
9.5100002 -1.1900001 0.95999998
9.5100002 -1.1900001 1.0599999
9.5100002 -1.1900001 1.16
9.5100002 -1.1900001 1.26
9.5100002 -1.1900001 1.36
9.5100002 -1.1900001 1.46
9.5100002 -1.1900001 1.5599999
9.5100002 -1.1900001 1.66
9.5100002 -1.1900001 1.76
9.5100002 -1.1900001 1.86
9.5100002 -1.1900001 1.96
9.5100002 -1.1900001 2.0599999
9.5100002 -1.1900001 2.1600001
9.5100002 -1.1900001 2.26
9.5100002 -1.1900001 2.3599999
9.5100002 -1.1900001 2.46
9.5100002 -1.09 -0.94
9.5100002 -1.09 -0.83999997
9.5100002 -1.09 -0.74000001
9.5100002 -1.09 -0.63999999
9.5100002 -1.09 -0.54000002
9.5100002 -1.09 -0.44
9.5100002 -1.09 -0.34
9.5100002 -1.09 -0.23999999
9.5100002 -1.09 -0.14
9.5100002 -1.09 -0.039999999
9.5100002 -1.09 0.059999999
9.5100002 -1.09 0.16
9.5100002 -1.09 0.25999999
9.5100002 -1.09 0.36000001
9.5100002 -1.09 0.46000001
9.5100002 -1.09 0.56
9.5100002 -1.09 0.66000003
9.5100002 -1.09 0.75999999
9.5100002 -1.09 0.86000001
9.5100002 -1.09 0.95999998
9.5100002 -1.09 1.0599999
9.5100002 -1.09 1.16
9.5100002 -1.09 1.26
9.5100002 -1.09 1.36
9.5100002 -1.09 1.46
9.5100002 -1.09 1.5599999
9.5100002 -1.09 1.66
9.5100002 -1.09 1.76
9.5100002 -1.09 1.86
9.5100002 -0.99000001 -0.94
9.5100002 -0.99000001 -0.83999997
9.5100002 -0.99000001 -0.74000001
9.5100002 -0.99000001 -0.63999999
9.5100002 -0.99000001 -0.54000002
9.5100002 -0.99000001 -0.44
9.5100002 -0.99000001 -0.34
9.5100002 -0.99000001 -0.23999999
9.5100002 -0.99000001 -0.14
9.5100002 -0.99000001 -0.039999999
9.5100002 -0.99000001 0.059999999
9.5100002 -0.99000001 0.16
9.5100002 -0.99000001 0.25999999
9.5100002 -0.99000001 0.36000001
9.5100002 -0.99000001 0.46000001
9.5100002 -0.99000001 0.56
9.5100002 -0.88999999 -0.94
9.5100002 -0.88999999 -0.83999997
9.5100002 -0.88999999 -0.74000001
9.5100002 -0.88999999 -0.63999999
9.5100002 -0.88999999 -0.54000002
9.5100002 -0.88999999 -0.44
9.5100002 -0.88999999 -0.34
9.5100002 -0.88999999 -0.23999999
9.5100002 -0.88999999 -0.14
9.5100002 -0.88999999 -0.039999999
9.5100002 -0.88999999 0.059999999
9.5100002 -0.88999999 0.16
9.5100002 -0.88999999 0.25999999
9.5100002 -0.88999999 0.36000001
9.5100002 -0.88999999 0.46000001
9.5100002 -0.88999999 0.56
9.5100002 -0.88999999 0.66000003
9.5100002 -0.88999999 0.75999999
9.5100002 -0.88999999 0.86000001
9.5100002 -0.88999999 0.95999998
9.5100002 -0.88999999 1.0599999
9.5100002 -0.88999999 1.16
9.5100002 -0.88999999 1.26
9.5100002 -0.88999999 1.36
9.5100002 -0.88999999 1.46
9.5100002 -0.88999999 1.5599999
9.5100002 -0.88999999 1.66
9.5100002 -0.88999999 1.76
9.5100002 -0.88999999 1.86
9.5100002 -0.88999999 1.96
9.5100002 -0.88999999 2.0599999
9.5100002 -0.88999999 2.1600001
9.5100002 -0.88999999 2.26
9.5100002 -0.88999999 2.3599999
9.5100002 -0.79000002 -0.94
9.5100002 -0.79000002 -0.83999997
9.5100002 -0.79000002 -0.74000001
9.5100002 -0.79000002 -0.63999999
9.5100002 -0.79000002 -0.54000002
9.5100002 -0.79000002 -0.44
9.5100002 -0.79000002 -0.34
9.5100002 -0.79000002 -0.23999999
9.5100002 -0.79000002 -0.14
9.5100002 -0.79000002 -0.039999999
9.5100002 -0.79000002 0.059999999
9.5100002 -0.79000002 0.16
9.5100002 -0.79000002 0.25999999
9.5100002 -0.79000002 0.36000001
9.5100002 -0.79000002 0.46000001
9.5100002 -0.79000002 0.56
9.5100002 -0.79000002 0.66000003
9.5100002 -0.79000002 0.75999999
9.5100002 -0.69 -0.94
9.5100002 -0.69 -0.83999997
9.5100002 -0.69 -0.74000001
9.5100002 -0.69 -0.63999999
9.5100002 -0.69 -0.54000002
9.5100002 -0.69 -0.44
9.5100002 -0.69 -0.34
9.5100002 -0.69 -0.23999999
9.5100002 -0.69 -0.14
9.5100002 -0.69 -0.039999999
9.5100002 -0.69 0.059999999
9.5100002 -0.58999997 -0.94
9.5100002 -0.58999997 -0.83999997
9.5100002 -0.58999997 -0.74000001
9.5100002 -0.58999997 -0.63999999
9.5100002 -0.58999997 -0.54000002
9.5100002 -0.58999997 -0.44
9.5100002 -0.58999997 -0.34
9.5100002 -0.58999997 -0.23999999
9.5100002 -0.58999997 -0.14
9.5100002 -0.58999997 -0.039999999
9.5100002 -0.58999997 0.059999999
9.5100002 -0.58999997 0.16
9.5100002 -0.49000001 -0.94
9.5100002 -0.49000001 -0.83999997
9.5100002 -0.49000001 -0.74000001
9.5100002 -0.49000001 -0.63999999
9.5100002 -0.49000001 -0.54000002
9.5100002 -0.49000001 -0.44
9.5100002 -0.49000001 -0.34
9.5100002 -0.49000001 -0.23999999
9.5100002 -0.49000001 -0.14
9.5100002 -0.49000001 -0.039999999
9.5100002 -0.49000001 0.059999999
9.5100002 -0.49000001 0.16
9.5100002 -0.49000001 0.25999999
9.5100002 -0.49000001 0.36000001
9.5100002 -0.49000001 0.46000001
9.5100002 -0.49000001 0.56
9.5100002 -0.49000001 0.66000003
9.5100002 -0.49000001 0.75999999
9.5100002 -0.49000001 0.86000001
9.5100002 -0.49000001 0.95999998
9.5100002 -0.49000001 1.0599999
9.5100002 -0.49000001 1.16
9.6099997 -1.1900001 -0.94
9.6099997 -1.1900001 -0.83999997
9.6099997 -1.1900001 -0.74000001
9.6099997 -1.1900001 -0.63999999
9.6099997 -1.1900001 -0.54000002
9.6099997 -1.1900001 -0.44
9.6099997 -1.1900001 -0.34
9.6099997 -1.1900001 -0.23999999
9.6099997 -1.1900001 -0.14
9.6099997 -1.1900001 -0.039999999
9.6099997 -1.1900001 0.059999999
9.6099997 -1.1900001 0.16
9.6099997 -1.1900001 0.25999999
9.6099997 -1.1900001 0.36000001
9.6099997 -1.1900001 0.46000001
9.6099997 -1.1900001 0.56
9.6099997 -1.09 -0.94
9.6099997 -1.09 -0.83999997
9.6099997 -1.09 -0.74000001
9.6099997 -1.09 -0.63999999
9.6099997 -1.09 -0.54000002
9.6099997 -1.09 -0.44
9.6099997 -1.09 -0.34
9.6099997 -1.09 -0.23999999
9.6099997 -1.09 -0.14
9.6099997 -1.09 -0.039999999
9.6099997 -1.09 0.059999999
9.6099997 -1.09 0.16
9.6099997 -1.09 0.25999999
9.6099997 -1.09 0.36000001
9.6099997 -1.09 0.46000001
9.6099997 -1.09 0.56
9.6099997 -1.09 0.66000003
9.6099997 -1.09 0.75999999
9.6099997 -1.09 0.86000001
9.6099997 -1.09 0.95999998
9.6099997 -1.09 1.0599999
9.6099997 -1.09 1.16
9.6099997 -1.09 1.26
9.6099997 -1.09 1.36
9.6099997 -1.09 1.46
9.6099997 -1.09 1.5599999
9.6099997 -1.09 1.66
9.6099997 -1.09 1.76
9.6099997 -1.09 1.86
9.6099997 -1.09 1.96
9.6099997 -1.09 2.0599999
9.6099997 -1.09 2.1600001
9.6099997 -0.99000001 -0.94
9.6099997 -0.99000001 -0.83999997
9.6099997 -0.99000001 -0.74000001
9.6099997 -0.99000001 -0.63999999
9.6099997 -0.99000001 -0.54000002
9.6099997 -0.99000001 -0.44
9.6099997 -0.99000001 -0.34
9.6099997 -0.99000001 -0.23999999
9.6099997 -0.99000001 -0.14
9.6099997 -0.99000001 -0.039999999
9.6099997 -0.99000001 0.059999999
9.6099997 -0.88999999 -0.94
9.6099997 -0.88999999 -0.83999997
9.6099997 -0.88999999 -0.74000001
9.6099997 -0.88999999 -0.63999999
9.6099997 -0.88999999 -0.54000002
9.6099997 -0.88999999 -0.44
9.6099997 -0.88999999 -0.34
9.6099997 -0.88999999 -0.23999999
9.6099997 -0.88999999 -0.14
9.6099997 -0.88999999 -0.039999999
9.6099997 -0.88999999 0.059999999
9.6099997 -0.88999999 0.16
9.6099997 -0.88999999 0.25999999
9.6099997 -0.88999999 0.36000001
9.6099997 -0.88999999 0.46000001
9.6099997 -0.88999999 0.56
9.6099997 -0.88999999 0.66000003
9.6099997 -0.88999999 0.75999999
9.6099997 -0.88999999 0.86000001
9.6099997 -0.88999999 0.95999998
9.6099997 -0.88999999 1.0599999
9.6099997 -0.88999999 1.16
9.6099997 -0.88999999 1.26
9.6099997 -0.88999999 1.36
9.6099997 -0.88999999 1.46
9.6099997 -0.88999999 1.5599999
9.6099997 -0.88999999 1.66
9.6099997 -0.88999999 1.76
9.6099997 -0.88999999 1.86
9.6099997 -0.88999999 1.96
9.6099997 -0.88999999 2.0599999
9.6099997 -0.88999999 2.1600001
9.6099997 -0.88999999 2.26
9.6099997 -0.88999999 2.3599999
9.6099997 -0.88999999 2.46
9.6099997 -0.79000002 -0.94
9.6099997 -0.79000002 -0.83999997
9.6099997 -0.79000002 -0.74000001
9.6099997 -0.79000002 -0.63999999
9.6099997 -0.79000002 -0.54000002
9.6099997 -0.79000002 -0.44
9.6099997 -0.79000002 -0.34
9.6099997 -0.79000002 -0.23999999
9.6099997 -0.79000002 -0.14
9.6099997 -0.79000002 -0.039999999
9.6099997 -0.79000002 0.059999999
9.6099997 -0.79000002 0.16
9.6099997 -0.79000002 0.25999999
9.6099997 -0.79000002 0.36000001
9.6099997 -0.79000002 0.46000001
9.6099997 -0.79000002 0.56
9.6099997 -0.79000002 0.66000003
9.6099997 -0.79000002 0.75999999
9.6099997 -0.79000002 0.86000001
9.6099997 -0.79000002 0.95999998
9.6099997 -0.79000002 1.0599999
9.6099997 -0.79000002 1.16
9.6099997 -0.79000002 1.26
9.6099997 -0.79000002 1.36
9.6099997 -0.79000002 1.46
9.6099997 -0.79000002 1.5599999
9.6099997 -0.79000002 1.66
9.6099997 -0.79000002 1.76
9.6099997 -0.79000002 1.86
9.6099997 -0.79000002 1.96
9.6099997 -0.79000002 2.0599999
9.6099997 -0.69 -0.94
9.6099997 -0.69 -0.83999997
9.6099997 -0.69 -0.74000001
9.6099997 -0.69 -0.63999999
9.6099997 -0.69 -0.54000002
9.6099997 -0.69 -0.44
9.6099997 -0.69 -0.34
9.6099997 -0.69 -0.23999999
9.6099997 -0.69 -0.14
9.6099997 -0.69 -0.039999999
9.6099997 -0.69 0.059999999
9.6099997 -0.69 0.16
9.6099997 -0.69 0.25999999
9.6099997 -0.69 0.36000001
9.6099997 -0.69 0.46000001
9.6099997 -0.69 0.56
9.6099997 -0.69 0.66000003
9.6099997 -0.69 0.75999999
9.6099997 -0.69 0.86000001
9.6099997 -0.69 0.95999998
9.6099997 -0.69 1.0599999
9.6099997 -0.69 1.16
9.6099997 -0.69 1.26
9.6099997 -0.69 1.36
9.6099997 -0.69 1.46
9.6099997 -0.69 1.5599999
9.6099997 -0.69 1.66
9.6099997 -0.69 1.76
9.6099997 -0.69 1.86
9.6099997 -0.69 1.96
9.6099997 -0.69 2.0599999
9.6099997 -0.69 2.1600001
9.6099997 -0.69 2.26
9.6099997 -0.69 2.3599999
9.6099997 -0.69 2.46
9.6099997 -0.69 2.5599999
9.6099997 -0.69 2.6600001
9.6099997 -0.69 2.76
9.6099997 -0.58999997 -0.94
9.6099997 -0.58999997 -0.83999997
9.6099997 -0.58999997 -0.74000001
9.6099997 -0.58999997 -0.63999999
9.6099997 -0.58999997 -0.54000002
9.6099997 -0.58999997 -0.44
9.6099997 -0.58999997 -0.34
9.6099997 -0.58999997 -0.23999999
9.6099997 -0.58999997 -0.14
9.6099997 -0.58999997 -0.039999999
9.6099997 -0.58999997 0.059999999
9.6099997 -0.58999997 0.16
9.6099997 -0.58999997 0.25999999
9.6099997 -0.58999997 0.36000001
9.6099997 -0.58999997 0.46000001
9.6099997 -0.58999997 0.56
9.6099997 -0.49000001 -0.94
9.6099997 -0.49000001 -0.83999997
9.6099997 -0.49000001 -0.74000001
9.6099997 -0.49000001 -0.63999999
9.6099997 -0.49000001 -0.54000002
9.6099997 -0.49000001 -0.44
9.6099997 -0.49000001 -0.34
9.6099997 -0.49000001 -0.23999999
9.6099997 -0.49000001 -0.14
9.6099997 -0.49000001 -0.039999999
9.6099997 -0.49000001 0.059999999
9.6099997 -0.49000001 0.16
9.6099997 -0.49000001 0.25999999
9.6099997 -0.49000001 0.36000001
9.6099997 -0.49000001 0.46000001
9.6099997 -0.49000001 0.56
9.6099997 -0.49000001 0.66000003
9.6099997 -0.49000001 0.75999999
9.6099997 -0.49000001 0.86000001
9.6099997 -0.49000001 0.95999998
9.6099997 -0.49000001 1.0599999
9.6099997 -0.49000001 1.16
9.6099997 -0.49000001 1.26
9.6099997 -0.49000001 1.36
9.6099997 -0.49000001 1.46
9.6099997 -0.49000001 1.5599999
9.6099997 -0.49000001 1.66
9.6099997 -0.49000001 1.76
9.6099997 -0.49000001 1.86
9.6099997 -0.49000001 1.96
9.71 -1.1900001 -0.94
9.71 -1.1900001 -0.83999997
9.71 -1.1900001 -0.74000001
9.71 -1.1900001 -0.63999999
9.71 -1.1900001 -0.54000002
9.71 -1.1900001 -0.44
9.71 -1.1900001 -0.34
9.71 -1.1900001 -0.23999999
9.71 -1.1900001 -0.14
9.71 -1.1900001 -0.039999999
9.71 -1.1900001 0.059999999
9.71 -1.1900001 0.16
9.71 -1.1900001 0.25999999
9.71 -1.1900001 0.36000001
9.71 -1.1900001 0.46000001
9.71 -1.1900001 0.56
9.71 -1.1900001 0.66000003
9.71 -1.1900001 0.75999999
9.71 -1.1900001 0.86000001
9.71 -1.1900001 0.95999998
9.71 -1.1900001 1.0599999
9.71 -1.1900001 1.16
9.71 -1.1900001 1.26
9.71 -1.1900001 1.36
9.71 -1.1900001 1.46
9.71 -1.1900001 1.5599999
9.71 -1.1900001 1.66
9.71 -1.1900001 1.76
9.71 -1.1900001 1.86
9.71 -1.1900001 1.96
9.71 -1.1900001 2.0599999
9.71 -1.1900001 2.1600001
9.71 -1.1900001 2.26
9.71 -1.1900001 2.3599999
9.71 -1.1900001 2.46
9.71 -1.1900001 2.5599999
9.71 -1.1900001 2.6600001
9.71 -1.1900001 2.76
9.71 -1.09 -0.94
9.71 -1.09 -0.83999997
9.71 -1.09 -0.74000001
9.71 -1.09 -0.63999999
9.71 -1.09 -0.54000002
9.71 -1.09 -0.44
9.71 -1.09 -0.34
9.71 -1.09 -0.23999999
9.71 -1.09 -0.14
9.71 -1.09 -0.039999999
9.71 -1.09 0.059999999
9.71 -1.09 0.16
9.71 -1.09 0.25999999
9.71 -1.09 0.36000001
9.71 -1.09 0.46000001
9.71 -1.09 0.56
9.71 -1.09 0.66000003
9.71 -1.09 0.75999999
9.71 -1.09 0.86000001
9.71 -0.99000001 -0.94
9.71 -0.99000001 -0.83999997
9.71 -0.99000001 -0.74000001
9.71 -0.99000001 -0.63999999
9.71 -0.99000001 -0.54000002
9.71 -0.99000001 -0.44
9.71 -0.99000001 -0.34
9.71 -0.99000001 -0.23999999
9.71 -0.99000001 -0.14
9.71 -0.99000001 -0.039999999
9.71 -0.99000001 0.059999999
9.71 -0.99000001 0.16
9.71 -0.99000001 0.25999999
9.71 -0.99000001 0.36000001
9.71 -0.99000001 0.46000001
9.71 -0.99000001 0.56
9.71 -0.99000001 0.66000003
9.71 -0.99000001 0.75999999
9.71 -0.99000001 0.86000001
9.71 -0.99000001 0.95999998
9.71 -0.99000001 1.0599999
9.71 -0.99000001 1.16
9.71 -0.99000001 1.26
9.71 -0.99000001 1.36
9.71 -0.99000001 1.46
9.71 -0.99000001 1.5599999
9.71 -0.99000001 1.66
9.71 -0.99000001 1.76
9.71 -0.99000001 1.86
9.71 -0.99000001 1.96
9.71 -0.99000001 2.0599999
9.71 -0.99000001 2.1600001
9.71 -0.99000001 2.26
9.71 -0.99000001 2.3599999
9.71 -0.99000001 2.46
9.71 -0.99000001 2.5599999
9.71 -0.99000001 2.6600001
9.71 -0.99000001 2.76
9.71 -0.99000001 2.8599999
9.71 -0.99000001 2.96
9.71 -0.88999999 -0.94
9.71 -0.88999999 -0.83999997
9.71 -0.88999999 -0.74000001
9.71 -0.88999999 -0.63999999
9.71 -0.88999999 -0.54000002
9.71 -0.88999999 -0.44
9.71 -0.88999999 -0.34
9.71 -0.88999999 -0.23999999
9.71 -0.88999999 -0.14
9.71 -0.88999999 -0.039999999
9.71 -0.88999999 0.059999999
9.71 -0.88999999 0.16
9.71 -0.88999999 0.25999999
9.71 -0.88999999 0.36000001
9.71 -0.88999999 0.46000001
9.71 -0.88999999 0.56
9.71 -0.79000002 -0.94
9.71 -0.79000002 -0.83999997
9.71 -0.79000002 -0.74000001
9.71 -0.79000002 -0.63999999
9.71 -0.79000002 -0.54000002
9.71 -0.79000002 -0.44
9.71 -0.79000002 -0.34
9.71 -0.79000002 -0.23999999
9.71 -0.79000002 -0.14
9.71 -0.79000002 -0.039999999
9.71 -0.79000002 0.059999999
9.71 -0.79000002 0.16
9.71 -0.79000002 0.25999999
9.71 -0.79000002 0.36000001
9.71 -0.79000002 0.46000001
9.71 -0.79000002 0.56
9.71 -0.79000002 0.66000003
9.71 -0.79000002 0.75999999
9.71 -0.79000002 0.86000001
9.71 -0.79000002 0.95999998
9.71 -0.79000002 1.0599999
9.71 -0.79000002 1.16
9.71 -0.79000002 1.26
9.71 -0.79000002 1.36
9.71 -0.79000002 1.46
9.71 -0.79000002 1.5599999
9.71 -0.79000002 1.66
9.71 -0.79000002 1.76
9.71 -0.79000002 1.86
9.71 -0.79000002 1.96
9.71 -0.79000002 2.0599999
9.71 -0.79000002 2.1600001
9.71 -0.79000002 2.26
9.71 -0.79000002 2.3599999
9.71 -0.69 -0.94
9.71 -0.69 -0.83999997
9.71 -0.69 -0.74000001
9.71 -0.69 -0.63999999
9.71 -0.69 -0.54000002
9.71 -0.69 -0.44
9.71 -0.69 -0.34
9.71 -0.69 -0.23999999
9.71 -0.69 -0.14
9.71 -0.69 -0.039999999
9.71 -0.69 0.059999999
9.71 -0.58999997 -0.94
9.71 -0.58999997 -0.83999997
9.71 -0.58999997 -0.74000001
9.71 -0.58999997 -0.63999999
9.71 -0.58999997 -0.54000002
9.71 -0.58999997 -0.44
9.71 -0.58999997 -0.34
9.71 -0.58999997 -0.23999999
9.71 -0.58999997 -0.14
9.71 -0.58999997 -0.039999999
9.71 -0.58999997 0.059999999
9.71 -0.58999997 0.16
9.71 -0.58999997 0.25999999
9.71 -0.58999997 0.36000001
9.71 -0.58999997 0.46000001
9.71 -0.58999997 0.56
9.71 -0.58999997 0.66000003
9.71 -0.58999997 0.75999999
9.71 -0.58999997 0.86000001
9.71 -0.58999997 0.95999998
9.71 -0.58999997 1.0599999
9.71 -0.58999997 1.16
9.71 -0.58999997 1.26
9.71 -0.58999997 1.36
9.71 -0.58999997 1.46
9.71 -0.58999997 1.5599999
9.71 -0.58999997 1.66
9.71 -0.58999997 1.76
9.71 -0.58999997 1.86
9.71 -0.58999997 1.96
9.71 -0.49000001 -0.94
9.71 -0.49000001 -0.83999997
9.71 -0.49000001 -0.74000001
9.71 -0.49000001 -0.63999999
9.71 -0.49000001 -0.54000002
9.71 -0.49000001 -0.44
9.71 -0.49000001 -0.34
9.71 -0.49000001 -0.23999999
9.71 -0.49000001 -0.14
9.71 -0.49000001 -0.039999999
9.71 -0.49000001 0.059999999
9.71 -0.49000001 0.16
9.71 -0.49000001 0.25999999
9.71 -0.49000001 0.36000001
9.71 -0.49000001 0.46000001
9.71 -0.49000001 0.56
9.71 -0.49000001 0.66000003
9.71 -0.49000001 0.75999999
9.71 -0.49000001 0.86000001
9.71 -0.49000001 0.95999998
9.71 -0.49000001 1.0599999
9.8100004 -1.1900001 -0.94
9.8100004 -1.1900001 -0.83999997
9.8100004 -1.1900001 -0.74000001
9.8100004 -1.1900001 -0.63999999
9.8100004 -1.1900001 -0.54000002
9.8100004 -1.1900001 -0.44
9.8100004 -1.1900001 -0.34
9.8100004 -1.1900001 -0.23999999
9.8100004 -1.1900001 -0.14
9.8100004 -1.1900001 -0.039999999
9.8100004 -1.1900001 0.059999999
9.8100004 -1.1900001 0.16
9.8100004 -1.1900001 0.25999999
9.8100004 -1.1900001 0.36000001
9.8100004 -1.1900001 0.46000001
9.8100004 -1.1900001 0.56
9.8100004 -1.1900001 0.66000003
9.8100004 -1.1900001 0.75999999
9.8100004 -1.1900001 0.86000001
9.8100004 -1.1900001 0.95999998
9.8100004 -1.1900001 1.0599999
9.8100004 -1.1900001 1.16
9.8100004 -1.1900001 1.26
9.8100004 -1.1900001 1.36
9.8100004 -1.1900001 1.46
9.8100004 -1.09 -0.94
9.8100004 -1.09 -0.83999997
9.8100004 -1.09 -0.74000001
9.8100004 -1.09 -0.63999999
9.8100004 -1.09 -0.54000002
9.8100004 -1.09 -0.44
9.8100004 -1.09 -0.34
9.8100004 -1.09 -0.23999999
9.8100004 -1.09 -0.14
9.8100004 -1.09 -0.039999999
9.8100004 -1.09 0.059999999
9.8100004 -1.09 0.16
9.8100004 -1.09 0.25999999
9.8100004 -1.09 0.36000001
9.8100004 -1.09 0.46000001
9.8100004 -1.09 0.56
9.8100004 -1.09 0.66000003
9.8100004 -1.09 0.75999999
9.8100004 -1.09 0.86000001
9.8100004 -1.09 0.95999998
9.8100004 -1.09 1.0599999
9.8100004 -1.09 1.16
9.8100004 -0.99000001 -0.94
9.8100004 -0.99000001 -0.83999997
9.8100004 -0.99000001 -0.74000001
9.8100004 -0.99000001 -0.63999999
9.8100004 -0.99000001 -0.54000002
9.8100004 -0.99000001 -0.44
9.8100004 -0.99000001 -0.34
9.8100004 -0.99000001 -0.23999999
9.8100004 -0.99000001 -0.14
9.8100004 -0.99000001 -0.039999999
9.8100004 -0.99000001 0.059999999
9.8100004 -0.99000001 0.16
9.8100004 -0.99000001 0.25999999
9.8100004 -0.99000001 0.36000001
9.8100004 -0.99000001 0.46000001
9.8100004 -0.99000001 0.56
9.8100004 -0.99000001 0.66000003
9.8100004 -0.99000001 0.75999999
9.8100004 -0.99000001 0.86000001
9.8100004 -0.99000001 0.95999998
9.8100004 -0.99000001 1.0599999
9.8100004 -0.99000001 1.16
9.8100004 -0.99000001 1.26
9.8100004 -0.99000001 1.36
9.8100004 -0.99000001 1.46
9.8100004 -0.99000001 1.5599999
9.8100004 -0.99000001 1.66
9.8100004 -0.99000001 1.76
9.8100004 -0.99000001 1.86
9.8100004 -0.99000001 1.96
9.8100004 -0.99000001 2.0599999
9.8100004 -0.88999999 -0.94
9.8100004 -0.88999999 -0.83999997
9.8100004 -0.88999999 -0.74000001
9.8100004 -0.88999999 -0.63999999
9.8100004 -0.88999999 -0.54000002
9.8100004 -0.88999999 -0.44
9.8100004 -0.88999999 -0.34
9.8100004 -0.88999999 -0.23999999
9.8100004 -0.88999999 -0.14
9.8100004 -0.88999999 -0.039999999
9.8100004 -0.88999999 0.059999999
9.8100004 -0.88999999 0.16
9.8100004 -0.88999999 0.25999999
9.8100004 -0.88999999 0.36000001
9.8100004 -0.88999999 0.46000001
9.8100004 -0.88999999 0.56
9.8100004 -0.88999999 0.66000003
9.8100004 -0.88999999 0.75999999
9.8100004 -0.88999999 0.86000001
9.8100004 -0.88999999 0.95999998
9.8100004 -0.88999999 1.0599999
9.8100004 -0.88999999 1.16
9.8100004 -0.88999999 1.26
9.8100004 -0.88999999 1.36
9.8100004 -0.88999999 1.46
9.8100004 -0.88999999 1.5599999
9.8100004 -0.88999999 1.66
9.8100004 -0.88999999 1.76
9.8100004 -0.88999999 1.86
9.8100004 -0.88999999 1.96
9.8100004 -0.79000002 -0.94
9.8100004 -0.79000002 -0.83999997
9.8100004 -0.79000002 -0.74000001
9.8100004 -0.79000002 -0.63999999
9.8100004 -0.79000002 -0.54000002
9.8100004 -0.79000002 -0.44
9.8100004 -0.79000002 -0.34
9.8100004 -0.79000002 -0.23999999
9.8100004 -0.79000002 -0.14
9.8100004 -0.79000002 -0.039999999
9.8100004 -0.79000002 0.059999999
9.8100004 -0.79000002 0.16
9.8100004 -0.79000002 0.25999999
9.8100004 -0.79000002 0.36000001
9.8100004 -0.79000002 0.46000001
9.8100004 -0.79000002 0.56
9.8100004 -0.79000002 0.66000003
9.8100004 -0.79000002 0.75999999
9.8100004 -0.79000002 0.86000001
9.8100004 -0.79000002 0.95999998
9.8100004 -0.79000002 1.0599999
9.8100004 -0.79000002 1.16
9.8100004 -0.79000002 1.26
9.8100004 -0.79000002 1.36
9.8100004 -0.79000002 1.46
9.8100004 -0.79000002 1.5599999
9.8100004 -0.79000002 1.66
9.8100004 -0.79000002 1.76
9.8100004 -0.79000002 1.86
9.8100004 -0.69 -0.94
9.8100004 -0.69 -0.83999997
9.8100004 -0.69 -0.74000001
9.8100004 -0.69 -0.63999999
9.8100004 -0.69 -0.54000002
9.8100004 -0.69 -0.44
9.8100004 -0.69 -0.34
9.8100004 -0.69 -0.23999999
9.8100004 -0.69 -0.14
9.8100004 -0.69 -0.039999999
9.8100004 -0.69 0.059999999
9.8100004 -0.69 0.16
9.8100004 -0.69 0.25999999
9.8100004 -0.69 0.36000001
9.8100004 -0.69 0.46000001
9.8100004 -0.69 0.56
9.8100004 -0.69 0.66000003
9.8100004 -0.69 0.75999999
9.8100004 -0.69 0.86000001
9.8100004 -0.69 0.95999998
9.8100004 -0.69 1.0599999
9.8100004 -0.69 1.16
9.8100004 -0.58999997 -0.94
9.8100004 -0.58999997 -0.83999997
9.8100004 -0.58999997 -0.74000001
9.8100004 -0.58999997 -0.63999999
9.8100004 -0.58999997 -0.54000002
9.8100004 -0.58999997 -0.44
9.8100004 -0.58999997 -0.34
9.8100004 -0.58999997 -0.23999999
9.8100004 -0.58999997 -0.14
9.8100004 -0.58999997 -0.039999999
9.8100004 -0.58999997 0.059999999
9.8100004 -0.58999997 0.16
9.8100004 -0.58999997 0.25999999
9.8100004 -0.58999997 0.36000001
9.8100004 -0.58999997 0.46000001
9.8100004 -0.58999997 0.56
9.8100004 -0.58999997 0.66000003
9.8100004 -0.58999997 0.75999999
9.8100004 -0.58999997 0.86000001
9.8100004 -0.58999997 0.95999998
9.8100004 -0.58999997 1.0599999
9.8100004 -0.58999997 1.16
9.8100004 -0.58999997 1.26
9.8100004 -0.58999997 1.36
9.8100004 -0.58999997 1.46
9.8100004 -0.58999997 1.5599999
9.8100004 -0.58999997 1.66
9.8100004 -0.58999997 1.76
9.8100004 -0.58999997 1.86
9.8100004 -0.58999997 1.96
9.8100004 -0.58999997 2.0599999
9.8100004 -0.58999997 2.1600001
9.8100004 -0.58999997 2.26
9.8100004 -0.58999997 2.3599999
9.8100004 -0.58999997 2.46
9.8100004 -0.58999997 2.5599999
9.8100004 -0.49000001 -0.94
9.8100004 -0.49000001 -0.83999997
9.8100004 -0.49000001 -0.74000001
9.8100004 -0.49000001 -0.63999999
9.8100004 -0.49000001 -0.54000002
9.8100004 -0.49000001 -0.44
9.8100004 -0.49000001 -0.34
9.8100004 -0.49000001 -0.23999999
9.8100004 -0.49000001 -0.14
9.8100004 -0.49000001 -0.039999999
9.8100004 -0.49000001 0.059999999
9.8100004 -0.49000001 0.16
9.8100004 -0.49000001 0.25999999
9.8100004 -0.49000001 0.36000001
9.8100004 -0.49000001 0.46000001
9.8100004 -0.49000001 0.56
9.8100004 -0.49000001 0.66000003
9.8100004 -0.49000001 0.75999999
9.8100004 -0.49000001 0.86000001
9.8100004 -0.49000001 0.95999998
9.9099998 -1.09 -0.94
9.9099998 -1.09 -0.83999997
9.9099998 -1.09 -0.74000001
9.9099998 -1.09 -0.63999999
9.9099998 -1.09 -0.54000002
9.9099998 -1.09 -0.44
9.9099998 -1.09 -0.34
9.9099998 -1.09 -0.23999999
9.9099998 -1.09 -0.14
9.9099998 -1.09 -0.039999999
9.9099998 -1.09 0.059999999
9.9099998 -1.09 0.16
9.9099998 -1.09 0.25999999
9.9099998 -1.09 0.36000001
9.9099998 -1.09 0.46000001
9.9099998 -1.09 0.56
9.9099998 -1.09 0.66000003
9.9099998 -1.09 0.75999999
9.9099998 -1.09 0.86000001
9.9099998 -1.09 0.95999998
9.9099998 -1.09 1.0599999
9.9099998 -1.09 1.16
9.9099998 -1.09 1.26
9.9099998 -1.09 1.36
9.9099998 -1.09 1.46
9.9099998 -1.09 1.5599999
9.9099998 -1.09 1.66
9.9099998 -1.09 1.76
9.9099998 -1.09 1.86
9.9099998 -1.09 1.96
9.9099998 -1.09 2.0599999
9.9099998 -1.09 2.1600001
9.9099998 -1.09 2.26
9.9099998 -1.09 2.3599999
9.9099998 -1.09 2.46
9.9099998 -1.09 2.5599999
9.9099998 -0.99000001 -0.94
9.9099998 -0.99000001 -0.83999997
9.9099998 -0.99000001 -0.74000001
9.9099998 -0.99000001 -0.63999999
9.9099998 -0.99000001 -0.54000002
9.9099998 -0.99000001 -0.44
9.9099998 -0.99000001 -0.34
9.9099998 -0.99000001 -0.23999999
9.9099998 -0.99000001 -0.14
9.9099998 -0.99000001 -0.039999999
9.9099998 -0.99000001 0.059999999
9.9099998 -0.99000001 0.16
9.9099998 -0.99000001 0.25999999
9.9099998 -0.99000001 0.36000001
9.9099998 -0.99000001 0.46000001
9.9099998 -0.99000001 0.56
9.9099998 -0.99000001 0.66000003
9.9099998 -0.99000001 0.75999999
9.9099998 -0.99000001 0.86000001
9.9099998 -0.99000001 0.95999998
9.9099998 -0.99000001 1.0599999
9.9099998 -0.99000001 1.16
9.9099998 -0.99000001 1.26
9.9099998 -0.88999999 -0.94
9.9099998 -0.88999999 -0.83999997
9.9099998 -0.88999999 -0.74000001
9.9099998 -0.88999999 -0.63999999
9.9099998 -0.88999999 -0.54000002
9.9099998 -0.88999999 -0.44
9.9099998 -0.88999999 -0.34
9.9099998 -0.88999999 -0.23999999
9.9099998 -0.88999999 -0.14
9.9099998 -0.88999999 -0.039999999
9.9099998 -0.88999999 0.059999999
9.9099998 -0.88999999 0.16
9.9099998 -0.88999999 0.25999999
9.9099998 -0.88999999 0.36000001
9.9099998 -0.88999999 0.46000001
9.9099998 -0.88999999 0.56
9.9099998 -0.88999999 0.66000003
9.9099998 -0.88999999 0.75999999
9.9099998 -0.88999999 0.86000001
9.9099998 -0.88999999 0.95999998
9.9099998 -0.88999999 1.0599999
9.9099998 -0.88999999 1.16
9.9099998 -0.88999999 1.26
9.9099998 -0.88999999 1.36
9.9099998 -0.88999999 1.46
9.9099998 -0.88999999 1.5599999
9.9099998 -0.88999999 1.66
9.9099998 -0.88999999 1.76
9.9099998 -0.88999999 1.86
9.9099998 -0.88999999 1.96
9.9099998 -0.88999999 2.0599999
9.9099998 -0.88999999 2.1600001
9.9099998 -0.88999999 2.26
9.9099998 -0.88999999 2.3599999
9.9099998 -0.88999999 2.46
9.9099998 -0.79000002 -0.94
9.9099998 -0.79000002 -0.83999997
9.9099998 -0.79000002 -0.74000001
9.9099998 -0.79000002 -0.63999999
9.9099998 -0.79000002 -0.54000002
9.9099998 -0.79000002 -0.44
9.9099998 -0.79000002 -0.34
9.9099998 -0.79000002 -0.23999999
9.9099998 -0.79000002 -0.14
9.9099998 -0.79000002 -0.039999999
9.9099998 -0.79000002 0.059999999
9.9099998 -0.79000002 0.16
9.9099998 -0.79000002 0.25999999
9.9099998 -0.79000002 0.36000001
9.9099998 -0.79000002 0.46000001
9.9099998 -0.79000002 0.56
9.9099998 -0.79000002 0.66000003
9.9099998 -0.69 -0.94
9.9099998 -0.69 -0.83999997
9.9099998 -0.69 -0.74000001
9.9099998 -0.69 -0.63999999
9.9099998 -0.69 -0.54000002
9.9099998 -0.69 -0.44
9.9099998 -0.69 -0.34
9.9099998 -0.69 -0.23999999
9.9099998 -0.69 -0.14
9.9099998 -0.69 -0.039999999
9.9099998 -0.69 0.059999999
9.9099998 -0.69 0.16
9.9099998 -0.69 0.25999999
9.9099998 -0.69 0.36000001
9.9099998 -0.69 0.46000001
9.9099998 -0.69 0.56
9.9099998 -0.69 0.66000003
9.9099998 -0.69 0.75999999
9.9099998 -0.69 0.86000001
9.9099998 -0.69 0.95999998
9.9099998 -0.69 1.0599999
9.9099998 -0.69 1.16
9.9099998 -0.69 1.26
9.9099998 -0.69 1.36
9.9099998 -0.69 1.46
9.9099998 -0.69 1.5599999
9.9099998 -0.69 1.66
9.9099998 -0.69 1.76
9.9099998 -0.69 1.86
9.9099998 -0.69 1.96
9.9099998 -0.58999997 -0.94
9.9099998 -0.58999997 -0.83999997
9.9099998 -0.58999997 -0.74000001
9.9099998 -0.58999997 -0.63999999
9.9099998 -0.58999997 -0.54000002
9.9099998 -0.58999997 -0.44
9.9099998 -0.58999997 -0.34
9.9099998 -0.58999997 -0.23999999
9.9099998 -0.58999997 -0.14
9.9099998 -0.58999997 -0.039999999
9.9099998 -0.58999997 0.059999999
9.9099998 -0.58999997 0.16
9.9099998 -0.58999997 0.25999999
9.9099998 -0.58999997 0.36000001
9.9099998 -0.58999997 0.46000001
9.9099998 -0.58999997 0.56
9.9099998 -0.58999997 0.66000003
9.9099998 -0.58999997 0.75999999
9.9099998 -0.58999997 0.86000001
9.9099998 -0.58999997 0.95999998
9.9099998 -0.58999997 1.0599999
10.01 -0.99000001 -0.94
10.01 -0.99000001 -0.83999997
10.01 -0.99000001 -0.74000001
10.01 -0.99000001 -0.63999999
10.01 -0.99000001 -0.54000002
10.01 -0.99000001 -0.44
10.01 -0.99000001 -0.34
10.01 -0.99000001 -0.23999999
10.01 -0.99000001 -0.14
10.01 -0.99000001 -0.039999999
10.01 -0.99000001 0.059999999
10.01 -0.99000001 0.16
10.01 -0.99000001 0.25999999
10.01 -0.99000001 0.36000001
10.01 -0.99000001 0.46000001
10.01 -0.99000001 0.56
10.01 -0.99000001 0.66000003
10.01 -0.99000001 0.75999999
10.01 -0.99000001 0.86000001
10.01 -0.99000001 0.95999998
10.01 -0.88999999 -0.94
10.01 -0.88999999 -0.83999997
10.01 -0.88999999 -0.74000001
10.01 -0.88999999 -0.63999999
10.01 -0.88999999 -0.54000002
10.01 -0.88999999 -0.44
10.01 -0.88999999 -0.34
10.01 -0.88999999 -0.23999999
10.01 -0.88999999 -0.14
10.01 -0.88999999 -0.039999999
10.01 -0.88999999 0.059999999
10.01 -0.88999999 0.16
10.01 -0.88999999 0.25999999
10.01 -0.88999999 0.36000001
10.01 -0.88999999 0.46000001
10.01 -0.88999999 0.56
10.01 -0.88999999 0.66000003
10.01 -0.88999999 0.75999999
10.01 -0.88999999 0.86000001
10.01 -0.88999999 0.95999998
10.01 -0.88999999 1.0599999
10.01 -0.79000002 -0.94
10.01 -0.79000002 -0.83999997
10.01 -0.79000002 -0.74000001
10.01 -0.79000002 -0.63999999
10.01 -0.79000002 -0.54000002
10.01 -0.79000002 -0.44
10.01 -0.79000002 -0.34
10.01 -0.79000002 -0.23999999
10.01 -0.79000002 -0.14
10.01 -0.79000002 -0.039999999
10.01 -0.79000002 0.059999999
10.01 -0.69 -0.94
10.01 -0.69 -0.83999997
10.01 -0.69 -0.74000001
10.01 -0.69 -0.63999999
10.01 -0.69 -0.54000002
10.01 -0.69 -0.44
10.01 -0.69 -0.34
10.01 -0.69 -0.23999999
10.01 -0.69 -0.14
10.01 -0.69 -0.039999999
10.01 -0.69 0.059999999
10.01 -0.69 0.16
-5.0900002 -6.0900002 -0.94
-5.0900002 -6.0900002 -0.83999997
-5.0900002 -6.0900002 -0.74000001
-5.0900002 -6.0900002 -0.63999999
-5.0900002 -6.0900002 -0.54000002
-5.0900002 -6.0900002 -0.44
-5.0900002 -6.0900002 -0.34
-5.0900002 -6.0900002 -0.23999999
-5.0900002 -6.0900002 -0.14
-5.0900002 -6.0900002 -0.039999999
-5.0900002 -6.0900002 0.059999999
-5.0900002 -6.0900002 0.16
-5.0900002 -6.0900002 0.25999999
-5.0900002 -6.0900002 0.36000001
-5.0900002 -6.0900002 0.46000001
-5.0900002 -6.0900002 0.56
-5.0900002 -6.0900002 0.66000003
-5.0900002 -6.0900002 0.75999999
-5.0900002 -6.0900002 0.86000001
-5.0900002 -6.0900002 0.95999998
-5.0900002 -6.0900002 1.0599999
-5.0900002 -6.0900002 1.16
-5.0900002 -6.0900002 1.26
-5.0900002 -6.0900002 1.36
-5.0900002 -6.0900002 1.46
-5.0900002 -6.0900002 1.5599999
-5.0900002 -6.0900002 1.66
-5.0900002 -6.0900002 1.76
-5.0900002 -6.0900002 1.86
-5.0900002 -6.0900002 1.96
-5.0900002 -6.0900002 2.0599999
-5.0900002 -6.0900002 2.1600001
-5.0900002 -6.0900002 2.26
-5.0900002 -6.0900002 2.3599999
-5.0900002 -6.0900002 2.46
-5.0900002 -6.0900002 2.5599999
-5.0900002 -6.0900002 2.6600001
-5.0900002 -5.9899998 -0.94
-5.0900002 -5.9899998 -0.83999997
-5.0900002 -5.9899998 -0.74000001
-5.0900002 -5.9899998 -0.63999999
-5.0900002 -5.9899998 -0.54000002
-5.0900002 -5.9899998 -0.44
-5.0900002 -5.9899998 -0.34
-5.0900002 -5.9899998 -0.23999999
-5.0900002 -5.9899998 -0.14
-5.0900002 -5.9899998 -0.039999999
-5.0900002 -5.9899998 0.059999999
-5.0900002 -5.9899998 0.16
-5.0900002 -5.9899998 0.25999999
-5.0900002 -5.9899998 0.36000001
-5.0900002 -5.9899998 0.46000001
-5.0900002 -5.9899998 0.56
-5.0900002 -5.9899998 0.66000003
-5.0900002 -5.9899998 0.75999999
-5.0900002 -5.9899998 0.86000001
-5.0900002 -5.9899998 0.95999998
-5.0900002 -5.9899998 1.0599999
-5.0900002 -5.9899998 1.16
-5.0900002 -5.9899998 1.26
-5.0900002 -5.9899998 1.36
-5.0900002 -5.9899998 1.46
-5.0900002 -5.9899998 1.5599999
-5.0900002 -5.9899998 1.66
-5.0900002 -5.9899998 1.76
-5.0900002 -5.9899998 1.86
-5.0900002 -5.9899998 1.96
-5.0900002 -5.9899998 2.0599999
-5.0900002 -5.8899999 -0.94
-5.0900002 -5.8899999 -0.83999997
-5.0900002 -5.8899999 -0.74000001
-5.0900002 -5.8899999 -0.63999999
-5.0900002 -5.8899999 -0.54000002
-5.0900002 -5.8899999 -0.44
-5.0900002 -5.8899999 -0.34
-5.0900002 -5.8899999 -0.23999999
-5.0900002 -5.8899999 -0.14
-5.0900002 -5.8899999 -0.039999999
-5.0900002 -5.8899999 0.059999999
-5.0900002 -5.8899999 0.16
-5.0900002 -5.8899999 0.25999999
-5.0900002 -5.8899999 0.36000001
-5.0900002 -5.8899999 0.46000001
-5.0900002 -5.8899999 0.56
-5.0900002 -5.8899999 0.66000003
-5.0900002 -5.8899999 0.75999999
-5.0900002 -5.8899999 0.86000001
-5.0900002 -5.8899999 0.95999998
-5.0900002 -5.8899999 1.0599999
-5.0900002 -5.8899999 1.16
-5.0900002 -5.8899999 1.26
-5.0900002 -5.8899999 1.36
-5.0900002 -5.8899999 1.46
-5.0900002 -5.8899999 1.5599999
-5.0900002 -5.8899999 1.66
-5.0900002 -5.8899999 1.76
-5.0900002 -5.8899999 1.86
-5.0900002 -5.8899999 1.96
-5.0900002 -5.8899999 2.0599999
-5.0900002 -5.8899999 2.1600001
-5.0900002 -5.8899999 2.26
-5.0900002 -5.8899999 2.3599999
-5.0900002 -5.8899999 2.46
-5.0900002 -5.8899999 2.5599999
-5.0900002 -5.8899999 2.6600001
-5.0900002 -5.79 -0.94
-5.0900002 -5.79 -0.83999997
-5.0900002 -5.79 -0.74000001
-5.0900002 -5.79 -0.63999999
-5.0900002 -5.79 -0.54000002
-5.0900002 -5.79 -0.44
-5.0900002 -5.79 -0.34
-5.0900002 -5.79 -0.23999999
-5.0900002 -5.79 -0.14
-5.0900002 -5.79 -0.039999999
-5.0900002 -5.79 0.059999999
-5.0900002 -5.79 0.16
-5.0900002 -5.79 0.25999999
-5.0900002 -5.79 0.36000001
-5.0900002 -5.79 0.46000001
-5.0900002 -5.79 0.56
-5.0900002 -5.79 0.66000003
-5.0900002 -5.79 0.75999999
-5.0900002 -5.79 0.86000001
-5.0900002 -5.79 0.95999998
-5.0900002 -5.79 1.0599999
-5.0900002 -5.79 1.16
-5.0900002 -5.79 1.26
-5.0900002 -5.79 1.36
-5.0900002 -5.79 1.46
-5.0900002 -5.79 1.5599999
-5.0900002 -5.79 1.66
-5.0900002 -5.79 1.76
-5.0900002 -5.79 1.86
-5.0900002 -5.79 1.96
-5.0900002 -5.79 2.0599999
-5.0900002 -5.79 2.1600001
-5.0900002 -5.79 2.26
-5.0900002 -5.79 2.3599999
-4.9899998 -6.0900002 -0.94
-4.9899998 -6.0900002 -0.83999997
-4.9899998 -6.0900002 -0.74000001
-4.9899998 -6.0900002 -0.63999999
-4.9899998 -6.0900002 -0.54000002
-4.9899998 -6.0900002 -0.44
-4.9899998 -6.0900002 -0.34
-4.9899998 -6.0900002 -0.23999999
-4.9899998 -6.0900002 -0.14
-4.9899998 -6.0900002 -0.039999999
-4.9899998 -6.0900002 0.059999999
-4.9899998 -6.0900002 0.16
-4.9899998 -6.0900002 0.25999999
-4.9899998 -6.0900002 0.36000001
-4.9899998 -6.0900002 0.46000001
-4.9899998 -6.0900002 0.56
-4.9899998 -6.0900002 0.66000003
-4.9899998 -6.0900002 0.75999999
-4.9899998 -6.0900002 0.86000001
-4.9899998 -6.0900002 0.95999998
-4.9899998 -6.0900002 1.0599999
-4.9899998 -6.0900002 1.16
-4.9899998 -6.0900002 1.26
-4.9899998 -5.9899998 -0.94
-4.9899998 -5.9899998 -0.83999997
-4.9899998 -5.9899998 -0.74000001
-4.9899998 -5.9899998 -0.63999999
-4.9899998 -5.9899998 -0.54000002
-4.9899998 -5.9899998 -0.44
-4.9899998 -5.9899998 -0.34
-4.9899998 -5.9899998 -0.23999999
-4.9899998 -5.9899998 -0.14
-4.9899998 -5.9899998 -0.039999999
-4.9899998 -5.9899998 0.059999999
-4.9899998 -5.9899998 0.16
-4.9899998 -5.9899998 0.25999999
-4.9899998 -5.9899998 0.36000001
-4.9899998 -5.9899998 0.46000001
-4.9899998 -5.9899998 0.56
-4.9899998 -5.9899998 0.66000003
-4.9899998 -5.9899998 0.75999999
-4.9899998 -5.9899998 0.86000001
-4.9899998 -5.9899998 0.95999998
-4.9899998 -5.9899998 1.0599999
-4.9899998 -5.9899998 1.16
-4.9899998 -5.9899998 1.26
-4.9899998 -5.9899998 1.36
-4.9899998 -5.9899998 1.46
-4.9899998 -5.9899998 1.5599999
-4.9899998 -5.9899998 1.66
-4.9899998 -5.9899998 1.76
-4.9899998 -5.9899998 1.86
-4.9899998 -5.9899998 1.96
-4.9899998 -5.9899998 2.0599999
-4.9899998 -5.9899998 2.1600001
-4.9899998 -5.9899998 2.26
-4.9899998 -5.9899998 2.3599999
-4.9899998 -5.9899998 2.46
-4.9899998 -5.9899998 2.5599999
-4.9899998 -5.9899998 2.6600001
-4.9899998 -5.8899999 -0.94
-4.9899998 -5.8899999 -0.83999997
-4.9899998 -5.8899999 -0.74000001
-4.9899998 -5.8899999 -0.63999999
-4.9899998 -5.8899999 -0.54000002
-4.9899998 -5.8899999 -0.44
-4.9899998 -5.8899999 -0.34
-4.9899998 -5.8899999 -0.23999999
-4.9899998 -5.8899999 -0.14
-4.9899998 -5.8899999 -0.039999999
-4.9899998 -5.8899999 0.059999999
-4.9899998 -5.8899999 0.16
-4.9899998 -5.8899999 0.25999999
-4.9899998 -5.8899999 0.36000001
-4.9899998 -5.8899999 0.46000001
-4.9899998 -5.8899999 0.56
-4.9899998 -5.8899999 0.66000003
-4.9899998 -5.8899999 0.75999999
-4.9899998 -5.8899999 0.86000001
-4.9899998 -5.8899999 0.95999998
-4.9899998 -5.8899999 1.0599999
-4.9899998 -5.8899999 1.16
-4.9899998 -5.8899999 1.26
-4.9899998 -5.8899999 1.36
-4.9899998 -5.8899999 1.46
-4.9899998 -5.8899999 1.5599999
-4.9899998 -5.8899999 1.66
-4.9899998 -5.8899999 1.76
-4.9899998 -5.8899999 1.86
-4.9899998 -5.8899999 1.96
-4.9899998 -5.8899999 2.0599999
-4.9899998 -5.8899999 2.1600001
-4.9899998 -5.8899999 2.26
-4.9899998 -5.8899999 2.3599999
-4.9899998 -5.8899999 2.46
-4.9899998 -5.8899999 2.5599999
-4.9899998 -5.8899999 2.6600001
-4.9899998 -5.8899999 2.76
-4.9899998 -5.8899999 2.8599999
-4.9899998 -5.79 -0.94
-4.9899998 -5.79 -0.83999997
-4.9899998 -5.79 -0.74000001
-4.9899998 -5.79 -0.63999999
-4.9899998 -5.79 -0.54000002
-4.9899998 -5.79 -0.44
-4.9899998 -5.79 -0.34
-4.9899998 -5.79 -0.23999999
-4.9899998 -5.79 -0.14
-4.9899998 -5.79 -0.039999999
-4.9899998 -5.79 0.059999999
-4.9899998 -5.79 0.16
-4.9899998 -5.79 0.25999999
-4.9899998 -5.79 0.36000001
-4.9899998 -5.79 0.46000001
-4.9899998 -5.79 0.56
-4.9899998 -5.79 0.66000003
-4.9899998 -5.79 0.75999999
-4.9899998 -5.79 0.86000001
-4.9899998 -5.79 0.95999998
-4.9899998 -5.79 1.0599999
-4.9899998 -5.79 1.16
-4.9899998 -5.79 1.26
-4.9899998 -5.79 1.36
-4.9899998 -5.79 1.46
-4.9899998 -5.79 1.5599999
-4.9899998 -5.79 1.66
-4.9899998 -5.79 1.76
-4.9899998 -5.79 1.86
-4.9899998 -5.79 1.96
-4.9899998 -5.79 2.0599999
-4.9899998 -5.79 2.1600001
-4.8899999 -6.0900002 -0.94
-4.8899999 -6.0900002 -0.83999997
-4.8899999 -6.0900002 -0.74000001
-4.8899999 -6.0900002 -0.63999999
-4.8899999 -6.0900002 -0.54000002
-4.8899999 -6.0900002 -0.44
-4.8899999 -6.0900002 -0.34
-4.8899999 -6.0900002 -0.23999999
-4.8899999 -6.0900002 -0.14
-4.8899999 -6.0900002 -0.039999999
-4.8899999 -6.0900002 0.059999999
-4.8899999 -6.0900002 0.16
-4.8899999 -6.0900002 0.25999999
-4.8899999 -6.0900002 0.36000001
-4.8899999 -6.0900002 0.46000001
-4.8899999 -6.0900002 0.56
-4.8899999 -6.0900002 0.66000003
-4.8899999 -6.0900002 0.75999999
-4.8899999 -6.0900002 0.86000001
-4.8899999 -6.0900002 0.95999998
-4.8899999 -6.0900002 1.0599999
-4.8899999 -6.0900002 1.16
-4.8899999 -6.0900002 1.26
-4.8899999 -6.0900002 1.36
-4.8899999 -6.0900002 1.46
-4.8899999 -6.0900002 1.5599999
-4.8899999 -6.0900002 1.66
-4.8899999 -6.0900002 1.76
-4.8899999 -6.0900002 1.86
-4.8899999 -6.0900002 1.96
-4.8899999 -6.0900002 2.0599999
-4.8899999 -6.0900002 2.1600001
-4.8899999 -6.0900002 2.26
-4.8899999 -6.0900002 2.3599999
-4.8899999 -6.0900002 2.46
-4.8899999 -6.0900002 2.5599999
-4.8899999 -5.9899998 -0.94
-4.8899999 -5.9899998 -0.83999997
-4.8899999 -5.9899998 -0.74000001
-4.8899999 -5.9899998 -0.63999999
-4.8899999 -5.9899998 -0.54000002
-4.8899999 -5.9899998 -0.44
-4.8899999 -5.9899998 -0.34
-4.8899999 -5.9899998 -0.23999999
-4.8899999 -5.9899998 -0.14
-4.8899999 -5.9899998 -0.039999999
-4.8899999 -5.9899998 0.059999999
-4.8899999 -5.9899998 0.16
-4.8899999 -5.9899998 0.25999999
-4.8899999 -5.9899998 0.36000001
-4.8899999 -5.9899998 0.46000001
-4.8899999 -5.9899998 0.56
-4.8899999 -5.9899998 0.66000003
-4.8899999 -5.9899998 0.75999999
-4.8899999 -5.9899998 0.86000001
-4.8899999 -5.9899998 0.95999998
-4.8899999 -5.9899998 1.0599999
-4.8899999 -5.9899998 1.16
-4.8899999 -5.9899998 1.26
-4.8899999 -5.9899998 1.36
-4.8899999 -5.9899998 1.46
-4.8899999 -5.9899998 1.5599999
-4.8899999 -5.9899998 1.66
-4.8899999 -5.9899998 1.76
-4.8899999 -5.9899998 1.86
-4.8899999 -5.9899998 1.96
-4.8899999 -5.9899998 2.0599999
-4.8899999 -5.9899998 2.1600001
-4.8899999 -5.9899998 2.26
-4.8899999 -5.8899999 -0.94
-4.8899999 -5.8899999 -0.83999997
-4.8899999 -5.8899999 -0.74000001
-4.8899999 -5.8899999 -0.63999999
-4.8899999 -5.8899999 -0.54000002
-4.8899999 -5.8899999 -0.44
-4.8899999 -5.8899999 -0.34
-4.8899999 -5.8899999 -0.23999999
-4.8899999 -5.8899999 -0.14
-4.8899999 -5.8899999 -0.039999999
-4.8899999 -5.8899999 0.059999999
-4.8899999 -5.8899999 0.16
-4.8899999 -5.8899999 0.25999999
-4.8899999 -5.8899999 0.36000001
-4.8899999 -5.8899999 0.46000001
-4.8899999 -5.8899999 0.56
-4.8899999 -5.8899999 0.66000003
-4.8899999 -5.8899999 0.75999999
-4.8899999 -5.8899999 0.86000001
-4.8899999 -5.8899999 0.95999998
-4.8899999 -5.8899999 1.0599999
-4.8899999 -5.79 -0.94
-4.8899999 -5.79 -0.83999997
-4.8899999 -5.79 -0.74000001
-4.8899999 -5.79 -0.63999999
-4.8899999 -5.79 -0.54000002
-4.8899999 -5.79 -0.44
-4.8899999 -5.79 -0.34
-4.8899999 -5.79 -0.23999999
-4.8899999 -5.79 -0.14
-4.8899999 -5.79 -0.039999999
-4.8899999 -5.79 0.059999999
-4.8899999 -5.79 0.16
-4.8899999 -5.79 0.25999999
-4.8899999 -5.79 0.36000001
-4.8899999 -5.79 0.46000001
-4.8899999 -5.79 0.56
-4.8899999 -5.79 0.66000003
-4.8899999 -5.79 0.75999999
-4.8899999 -5.79 0.86000001
-4.8899999 -5.79 0.95999998
-4.8899999 -5.79 1.0599999
-4.8899999 -5.79 1.16
-4.8899999 -5.79 1.26
-4.8899999 -5.79 1.36
-4.8899999 -5.79 1.46
-4.8899999 -5.79 1.5599999
-4.8899999 -5.79 1.66
-4.8899999 -5.79 1.76
-4.8899999 -5.79 1.86
-4.8899999 -5.79 1.96
-4.79 -6.0900002 -0.94
-4.79 -6.0900002 -0.83999997
-4.79 -6.0900002 -0.74000001
-4.79 -6.0900002 -0.63999999
-4.79 -6.0900002 -0.54000002
-4.79 -6.0900002 -0.44
-4.79 -6.0900002 -0.34
-4.79 -6.0900002 -0.23999999
-4.79 -6.0900002 -0.14
-4.79 -6.0900002 -0.039999999
-4.79 -6.0900002 0.059999999
-4.79 -6.0900002 0.16
-4.79 -6.0900002 0.25999999
-4.79 -6.0900002 0.36000001
-4.79 -6.0900002 0.46000001
-4.79 -6.0900002 0.56
-4.79 -6.0900002 0.66000003
-4.79 -6.0900002 0.75999999
-4.79 -6.0900002 0.86000001
-4.79 -6.0900002 0.95999998
-4.79 -6.0900002 1.0599999
-4.79 -6.0900002 1.16
-4.79 -6.0900002 1.26
-4.79 -6.0900002 1.36
-4.79 -6.0900002 1.46
-4.79 -6.0900002 1.5599999
-4.79 -6.0900002 1.66
-4.79 -6.0900002 1.76
-4.79 -6.0900002 1.86
-4.79 -6.0900002 1.96
-4.79 -6.0900002 2.0599999
-4.79 -6.0900002 2.1600001
-4.79 -5.9899998 -0.94
-4.79 -5.9899998 -0.83999997
-4.79 -5.9899998 -0.74000001
-4.79 -5.9899998 -0.63999999
-4.79 -5.9899998 -0.54000002
-4.79 -5.9899998 -0.44
-4.79 -5.9899998 -0.34
-4.79 -5.9899998 -0.23999999
-4.79 -5.9899998 -0.14
-4.79 -5.9899998 -0.039999999
-4.79 -5.9899998 0.059999999
-4.79 -5.9899998 0.16
-4.79 -5.9899998 0.25999999
-4.79 -5.9899998 0.36000001
-4.79 -5.9899998 0.46000001
-4.79 -5.9899998 0.56
-4.79 -5.8899999 -0.94
-4.79 -5.8899999 -0.83999997
-4.79 -5.8899999 -0.74000001
-4.79 -5.8899999 -0.63999999
-4.79 -5.8899999 -0.54000002
-4.79 -5.8899999 -0.44
-4.79 -5.8899999 -0.34
-4.79 -5.8899999 -0.23999999
-4.79 -5.8899999 -0.14
-4.79 -5.8899999 -0.039999999
-4.79 -5.8899999 0.059999999
-4.79 -5.8899999 0.16
-4.79 -5.8899999 0.25999999
-4.79 -5.8899999 0.36000001
-4.79 -5.8899999 0.46000001
-4.79 -5.8899999 0.56
-4.79 -5.8899999 0.66000003
-4.79 -5.8899999 0.75999999
-4.79 -5.79 -0.94
-4.79 -5.79 -0.83999997
-4.79 -5.79 -0.74000001
-4.79 -5.79 -0.63999999
-4.79 -5.79 -0.54000002
-4.79 -5.79 -0.44
-4.79 -5.79 -0.34
-4.79 -5.79 -0.23999999
-4.79 -5.79 -0.14
-4.79 -5.79 -0.039999999
-4.79 -5.79 0.059999999
-4.79 -5.79 0.16
-4.79 -5.79 0.25999999
-4.79 -5.79 0.36000001
-4.79 -5.79 0.46000001
-4.79 -5.79 0.56
-4.79 -5.79 0.66000003
-4.79 -5.79 0.75999999
-4.79 -5.79 0.86000001
-4.79 -5.79 0.95999998
-4.79 -5.79 1.0599999
-4.79 -5.79 1.16
-5.29 -4.29 -0.94
-5.29 -4.29 -0.83999997
-5.29 -4.29 -0.74000001
-5.29 -4.29 -0.63999999
-5.29 -4.29 -0.54000002
-5.29 -4.29 -0.44
-5.29 -4.29 -0.34
-5.29 -4.29 -0.23999999
-5.29 -4.29 -0.14
-5.29 -4.29 -0.039999999
-5.29 -4.29 0.059999999
-5.29 -4.29 0.16
-5.29 -4.29 0.25999999
-5.29 -4.29 0.36000001
-5.29 -4.29 0.46000001
-5.29 -4.29 0.56
-5.29 -4.29 0.66000003
-5.29 -4.29 0.75999999
-5.29 -4.29 0.86000001
-5.29 -4.29 0.95999998
-5.29 -4.29 1.0599999
-5.29 -4.29 1.16
-5.29 -4.29 1.26
-5.29 -4.29 1.36
-5.29 -4.29 1.46
-5.29 -4.29 1.5599999
-5.29 -4.29 1.66
-5.29 -4.29 1.76
-5.29 -4.1900001 -0.94
-5.29 -4.1900001 -0.83999997
-5.29 -4.1900001 -0.74000001
-5.29 -4.1900001 -0.63999999
-5.29 -4.1900001 -0.54000002
-5.29 -4.1900001 -0.44
-5.29 -4.1900001 -0.34
-5.29 -4.1900001 -0.23999999
-5.29 -4.1900001 -0.14
-5.29 -4.1900001 -0.039999999
-5.29 -4.1900001 0.059999999
-5.29 -4.1900001 0.16
-5.29 -4.1900001 0.25999999
-5.29 -4.1900001 0.36000001
-5.29 -4.1900001 0.46000001
-5.29 -4.1900001 0.56
-5.29 -4.1900001 0.66000003
-5.29 -4.1900001 0.75999999
-5.29 -4.1900001 0.86000001
-5.29 -4.1900001 0.95999998
-5.29 -4.1900001 1.0599999
-5.29 -4.1900001 1.16
-5.29 -4.1900001 1.26
-5.29 -4.1900001 1.36
-5.29 -4.1900001 1.46
-5.29 -4.1900001 1.5599999
-5.29 -4.1900001 1.66
-5.29 -4.1900001 1.76
-5.29 -4.1900001 1.86
-5.29 -4.1900001 1.96
-5.29 -4.1900001 2.0599999
-5.29 -4.1900001 2.1600001
-5.29 -4.0900002 -0.94
-5.29 -4.0900002 -0.83999997
-5.29 -4.0900002 -0.74000001
-5.29 -4.0900002 -0.63999999
-5.29 -4.0900002 -0.54000002
-5.29 -4.0900002 -0.44
-5.29 -4.0900002 -0.34
-5.29 -4.0900002 -0.23999999
-5.29 -4.0900002 -0.14
-5.29 -4.0900002 -0.039999999
-5.29 -4.0900002 0.059999999
-5.29 -3.99 -0.94
-5.29 -3.99 -0.83999997
-5.29 -3.99 -0.74000001
-5.29 -3.99 -0.63999999
-5.29 -3.99 -0.54000002
-5.29 -3.99 -0.44
-5.29 -3.99 -0.34
-5.29 -3.99 -0.23999999
-5.29 -3.99 -0.14
-5.29 -3.99 -0.039999999
-5.29 -3.99 0.059999999
-5.29 -3.99 0.16
-5.29 -3.99 0.25999999
-5.29 -3.99 0.36000001
-5.29 -3.99 0.46000001
-5.1900001 -4.29 -0.94
-5.1900001 -4.29 -0.83999997
-5.1900001 -4.29 -0.74000001
-5.1900001 -4.29 -0.63999999
-5.1900001 -4.29 -0.54000002
-5.1900001 -4.29 -0.44
-5.1900001 -4.29 -0.34
-5.1900001 -4.29 -0.23999999
-5.1900001 -4.29 -0.14
-5.1900001 -4.29 -0.039999999
-5.1900001 -4.29 0.059999999
-5.1900001 -4.29 0.16
-5.1900001 -4.29 0.25999999
-5.1900001 -4.29 0.36000001
-5.1900001 -4.29 0.46000001
-5.1900001 -4.29 0.56
-5.1900001 -4.29 0.66000003
-5.1900001 -4.29 0.75999999
-5.1900001 -4.1900001 -0.94
-5.1900001 -4.1900001 -0.83999997
-5.1900001 -4.1900001 -0.74000001
-5.1900001 -4.1900001 -0.63999999
-5.1900001 -4.1900001 -0.54000002
-5.1900001 -4.1900001 -0.44
-5.1900001 -4.1900001 -0.34
-5.1900001 -4.1900001 -0.23999999
-5.1900001 -4.1900001 -0.14
-5.1900001 -4.1900001 -0.039999999
-5.1900001 -4.1900001 0.059999999
-5.1900001 -4.1900001 0.16
-5.1900001 -4.1900001 0.25999999
-5.1900001 -4.1900001 0.36000001
-5.1900001 -4.1900001 0.46000001
-5.1900001 -4.1900001 0.56
-5.1900001 -4.1900001 0.66000003
-5.1900001 -4.1900001 0.75999999
-5.1900001 -4.1900001 0.86000001
-5.1900001 -4.1900001 0.95999998
-5.1900001 -4.1900001 1.0599999
-5.1900001 -4.1900001 1.16
-5.1900001 -4.1900001 1.26
-5.1900001 -4.1900001 1.36
-5.1900001 -4.1900001 1.46
-5.1900001 -4.1900001 1.5599999
-5.1900001 -4.1900001 1.66
-5.1900001 -4.1900001 1.76
-5.1900001 -4.1900001 1.86
-5.1900001 -4.1900001 1.96
-5.1900001 -4.1900001 2.0599999
-5.1900001 -4.0900002 -0.94
-5.1900001 -4.0900002 -0.83999997
-5.1900001 -4.0900002 -0.74000001
-5.1900001 -4.0900002 -0.63999999
-5.1900001 -4.0900002 -0.54000002
-5.1900001 -4.0900002 -0.44
-5.1900001 -4.0900002 -0.34
-5.1900001 -4.0900002 -0.23999999
-5.1900001 -4.0900002 -0.14
-5.1900001 -4.0900002 -0.039999999
-5.1900001 -4.0900002 0.059999999
-5.1900001 -4.0900002 0.16
-5.1900001 -4.0900002 0.25999999
-5.1900001 -4.0900002 0.36000001
-5.1900001 -4.0900002 0.46000001
-5.1900001 -4.0900002 0.56
-5.1900001 -4.0900002 0.66000003
-5.1900001 -4.0900002 0.75999999
-5.1900001 -4.0900002 0.86000001
-5.1900001 -4.0900002 0.95999998
-5.1900001 -4.0900002 1.0599999
-5.1900001 -4.0900002 1.16
-5.1900001 -4.0900002 1.26
-5.1900001 -4.0900002 1.36
-5.1900001 -3.99 -0.94
-5.1900001 -3.99 -0.83999997
-5.1900001 -3.99 -0.74000001
-5.1900001 -3.99 -0.63999999
-5.1900001 -3.99 -0.54000002
-5.1900001 -3.99 -0.44
-5.1900001 -3.99 -0.34
-5.1900001 -3.99 -0.23999999
-5.1900001 -3.99 -0.14
-5.1900001 -3.99 -0.039999999
-5.1900001 -3.99 0.059999999
-5.1900001 -3.99 0.16
-5.1900001 -3.99 0.25999999
-5.1900001 -3.99 0.36000001
-5.1900001 -3.99 0.46000001
-5.1900001 -3.99 0.56
-5.1900001 -3.99 0.66000003
-5.1900001 -3.99 0.75999999
-5.1900001 -3.99 0.86000001
